1537
-14.160028 50.111191 -86.193428 
-15.004378 50.494934 -85.798767 
-16.980490 7.831264 88.317039 
-9.935567 6.641278 88.487938 
-18.036390 5.426906 80.268784 
-12.877419 3.647206 77.075119 
-13.918879 5.443718 83.630249 
-9.853042 4.330995 81.493904 
-7.002683 3.324267 78.450638 
-0.191227 5.388116 87.537865 
-1.880129 4.111341 83.409500 
2.458755 3.546025 83.064522 
-12.966784 9.715659 93.896133 
-12.890694 12.989860 98.829567 
-7.355470 14.024334 101.421043 
-17.160110 19.860270 105.145645 
-12.373895 16.815102 103.382202 
-7.337920 21.898796 109.542824 
-2.532433 16.760555 104.764122 
-0.691856 12.392034 100.109909 
5.368379 10.711506 98.301788 
4.496320 14.615838 103.031471 
8.876897 18.749628 106.860619 
11.312880 15.279096 103.251305 
-7.314445 10.352790 96.581528 
-3.014202 7.042107 91.086288 
3.750447 9.074032 95.608734 
4.491563 5.705129 88.377960 
10.107830 8.514426 94.707817 
11.839948 11.142155 98.486115 
12.334363 5.768731 88.608078 
12.147936 4.670784 86.285324 
17.073053 5.842557 87.523369 
17.566343 8.110045 91.794228 
21.131990 7.694184 88.805183 
19.757490 5.101021 84.182472 
25.947361 9.270642 87.598778 
14.544030 9.605586 95.626549 
16.818144 14.164983 100.698006 
23.992687 10.584305 91.883499 
20.721567 12.468251 96.932373 
26.699104 14.812289 96.315994 
28.883656 13.324867 92.158051 
1.628445 -3.221165 29.182497 
0.540703 -11.864799 12.255840 
3.152007 -16.156881 10.504927 
4.551594 -17.747751 10.507329 
7.245485 -14.970665 16.044609 
9.414219 -10.492627 21.862577 
9.261644 -16.909103 12.969683 
3.020057 -13.219900 16.451006 
-0.166794 -4.050619 24.522724 
-2.192189 -1.689157 18.769691 
-1.476777 -3.474960 20.602871 
3.360423 -9.252846 22.069666 
6.120935 -10.926172 21.337551 
1.963122 -4.792576 26.626633 
4.429305 -4.586707 28.615154 
5.989028 -6.626983 26.186274 
-1.361541 -5.974817 15.839562 
0.497756 -10.980934 15.255534 
-0.611948 -8.744764 11.433691 
-2.275689 -3.056988 12.658317 
-3.651745 0.106545 9.783009 
11.156020 -16.332594 12.251105 
8.813624 -6.445724 25.994879 
12.127712 -8.619718 22.074610 
10.900229 -11.207869 20.204071 
13.220146 -8.904119 20.021055 
-12.079962 -0.403967 61.502037 
-9.067076 0.908747 66.066803 
-6.033740 1.577178 71.041214 
-3.393266 0.475429 67.898773 
-12.449610 2.623042 72.147324 
2.380087 -0.436560 69.280014 
13.272315 -4.249493 62.440193 
-0.601534 1.854364 76.000885 
9.153999 1.961516 78.785088 
4.077562 0.476117 73.006203 
16.511324 2.616131 79.354507 
8.279736 -3.615347 63.286621 
9.720921 -0.834697 70.514954 
14.824125 0.418446 74.505280 
-10.837398 -3.244595 53.353302 
-13.021687 -3.647076 50.047260 
-7.123744 -3.785256 51.066055 
-4.043539 -3.020216 57.219357 
-1.879598 -4.212099 49.892040 
-7.028980 -1.220750 60.691204 
-2.454141 -2.209511 59.777187 
-0.701275 -3.062119 57.449322 
4.338373 -4.278788 57.795910 
-9.726977 -2.920191 42.781513 
-7.008525 -3.461895 45.929585 
-5.969652 -2.217069 42.218704 
0.817573 -3.863752 53.896542 
2.275789 -3.926506 49.920166 
-3.125156 -3.891335 46.659653 
7.004620 -3.741343 46.042774 
2.506422 -2.117952 64.052567 
9.262938 -5.009961 58.409496 
14.253923 -4.845370 59.258842 
4.722492 -4.693322 50.952400 
6.682719 -5.122039 54.536659 
8.143143 -4.875373 50.002243 
11.894955 -3.509262 45.933918 
13.172377 -5.225518 55.672882 
14.990522 -4.100852 49.391113 
17.029461 -4.471904 52.510620 
15.051520 -2.716410 66.821846 
17.305933 1.042526 75.358948 
19.655523 0.917706 73.899376 
23.688808 0.218343 71.445679 
18.145041 -1.339181 69.990936 
21.270658 -2.511251 66.243118 
20.814117 -4.019306 54.544285 
23.908405 -3.670996 52.548233 
21.505775 -2.393394 48.570930 
25.528950 -2.253082 63.997738 
20.643051 -3.911923 59.887787 
29.240776 -1.739366 60.965866 
27.758364 -0.090817 68.503326 
31.565874 0.569325 66.268051 
25.725788 -2.919382 59.847767 
27.276537 -2.966257 53.990837 
25.470135 -3.440608 51.675198 
31.606291 -1.740325 54.932644 
32.376263 -1.153813 58.758717 
34.358940 -0.783057 54.646988 
20.120796 2.714190 77.943298 
25.629700 3.851477 77.405136 
33.369980 6.950402 77.395325 
30.313536 3.212922 72.817574 
30.251644 7.686087 81.282669 
36.224472 10.202043 80.722969 
39.751450 9.618022 76.143547 
36.491940 2.901490 66.042168 
37.141796 5.681783 71.671768 
38.968044 1.660276 59.161320 
41.014023 4.928048 64.703728 
42.487530 4.252676 61.900520 
46.794685 6.733626 62.213562 
42.777088 2.719132 57.326504 
46.809776 5.198387 58.878941 
45.892284 10.211834 68.350861 
49.253872 14.452065 71.183044 
49.618347 10.840355 65.137123 
51.816647 10.713468 62.686699 
50.043045 7.559500 60.258667 
53.161762 10.360555 61.260994 
54.617886 11.130213 59.876640 
-4.355822 -1.697877 40.647896 
-9.284329 1.375149 34.972836 
-2.482117 -1.143167 37.692951 
0.655137 -4.010825 46.160049 
5.112566 -2.912633 44.285538 
4.460706 -2.642317 41.261524 
1.000875 -2.762241 39.550732 
-3.435331 0.211535 32.790222 
-6.899946 2.398685 32.523140 
-3.769104 1.062195 30.305613 
-5.501119 3.742105 29.111544 
-2.548620 0.195482 27.303432 
-4.373677 3.759502 26.912415 
2.435880 -2.459772 35.655563 
0.943331 -2.126203 34.516548 
5.389996 -2.244782 35.985603 
-0.627887 -1.593393 30.691778 
3.410343 -3.228027 31.371788 
6.555270 -2.705280 32.317760 
16.522141 -3.017938 47.440121 
8.934930 -1.891343 41.267014 
12.383258 -0.738978 40.834675 
12.963679 0.972305 38.101963 
15.955983 -1.297274 44.151196 
20.398466 -3.765707 50.242161 
9.668549 -1.976216 30.933352 
9.948816 -0.683637 36.744701 
10.231182 -0.587628 34.156425 
21.284874 0.639048 45.169514 
18.106953 1.641566 42.706722 
20.987686 6.158363 41.563618 
15.634258 1.961908 40.356030 
12.832939 1.856776 32.128155 
13.487286 2.552574 35.750641 
15.085777 6.750713 31.716248 
17.701246 8.606272 36.093086 
17.881794 6.097776 39.088066 
-0.995795 -2.394984 25.474712 
-2.654758 -0.137519 17.196194 
-2.850446 1.468818 23.602392 
7.747220 -4.208047 28.916761 
10.753224 -2.739630 28.587818 
12.199610 -5.730141 24.385315 
13.151769 -0.957381 27.128748 
14.322772 -5.120932 21.790905 
15.080874 0.435608 24.574303 
16.334581 -2.253147 20.474638 
17.505985 -4.061866 16.702543 
21.661249 1.065858 16.237038 
18.684580 0.180306 19.095207 
12.771787 0.161766 29.166092 
14.790553 3.803857 27.699503 
16.396151 3.319617 24.503008 
17.233356 7.333120 27.202908 
18.594976 4.258175 22.363848 
21.518810 7.701720 22.879917 
22.102242 10.252787 24.355555 
27.363426 7.143733 17.448647 
23.879633 6.315866 42.763866 
20.114014 9.592017 37.754856 
20.327423 11.883924 34.220348 
23.298515 9.284269 39.502380 
27.328300 7.815128 41.521149 
26.918819 9.218151 39.904934 
22.548828 12.031499 35.301983 
25.611786 9.748062 38.883766 
26.777586 9.770050 36.961334 
27.600592 10.037917 36.178089 
17.509081 9.791630 31.052868 
22.022425 11.610929 30.730087 
19.818609 9.716128 27.280703 
22.284033 11.466327 28.526281 
20.813892 12.398876 32.420441 
28.927801 11.376014 26.112000 
28.181168 11.169380 28.018177 
24.019341 11.570656 33.577377 
24.069796 12.238334 32.605656 
23.256910 12.667843 30.720690 
24.780987 14.345418 32.117287 
25.578379 14.742990 31.211292 
26.759541 14.912147 33.134338 
27.912722 12.082490 34.926174 
29.784353 11.907320 35.033127 
29.149731 14.220867 31.661116 
23.736713 11.801438 28.853409 
27.422750 11.731440 29.360584 
24.691605 11.436210 25.502605 
28.519274 10.645723 21.788332 
24.929775 10.141463 21.805723 
25.442358 -1.939267 49.203827 
25.276394 1.077023 46.666054 
28.355709 -1.941276 50.790722 
25.702766 4.158748 44.989212 
31.965118 4.206845 46.524006 
36.167225 3.183706 48.708965 
32.290386 -1.034351 52.163235 
31.086964 0.253653 49.577690 
37.149033 0.095032 53.969784 
28.166813 4.136593 45.833481 
33.837799 4.660082 44.902531 
39.936729 1.378007 54.370342 
35.258640 1.202974 50.394047 
36.712734 3.902524 47.488342 
38.750519 4.110068 45.731709 
39.919693 3.788564 48.511974 
28.984785 5.458267 44.259167 
30.207066 7.323098 41.518528 
30.433569 7.328897 39.362980 
32.370014 6.365853 41.888138 
35.010822 6.059182 40.313900 
32.174324 6.689519 39.668190 
32.553448 8.204762 38.602093 
34.992622 8.304557 39.964203 
31.723331 9.743218 37.353020 
35.605965 9.321564 36.540405 
37.273163 8.689626 37.255093 
35.932522 5.372547 43.353195 
43.939651 4.900959 46.251347 
43.721798 5.583406 42.006474 
41.052265 5.348614 44.283287 
38.506229 5.211380 41.714947 
37.459389 7.046382 40.738270 
39.982506 5.620779 41.391148 
37.671322 8.455091 40.304371 
36.533920 8.753787 38.697483 
39.168690 8.996432 37.278019 
42.567547 6.170882 41.062637 
42.366142 8.145361 40.590118 
44.549095 8.813813 40.178154 
46.800564 7.217677 40.836536 
43.135674 2.524316 53.327629 
39.316891 1.525314 52.242214 
43.503174 3.145327 55.303562 
46.062817 3.846950 53.945408 
43.769230 3.595628 50.753479 
48.477551 4.852226 54.110802 
46.543629 4.480839 51.430374 
48.441647 5.911250 49.850800 
52.075485 7.273042 57.284019 
45.022079 6.604132 44.251789 
50.224243 7.900130 45.494152 
48.826893 8.710949 44.066406 
46.343590 5.772934 45.890034 
45.260124 6.135863 42.388142 
47.611877 8.404258 40.489761 
47.982430 7.615738 42.193588 
51.578220 7.083705 55.244938 
50.758564 6.873968 51.246662 
52.368008 7.038683 53.546768 
57.125080 11.254070 51.353718 
54.622051 9.048509 57.043526 
56.680748 11.014235 55.100491 
59.203613 13.575288 56.218643 
59.578465 13.432917 52.370930 
52.934994 8.652778 49.298149 
47.106247 10.307000 40.106243 
49.603058 9.536311 40.990791 
50.155464 9.335354 41.888012 
52.920704 12.161999 41.270489 
52.365913 11.756089 43.345825 
55.571266 15.825716 41.961857 
56.471306 12.544407 46.736435 
60.860943 15.155732 50.099476 
55.097630 12.570204 44.260899 
31.652996 10.129673 29.573240 
35.464943 9.100787 28.900398 
33.004124 10.380366 33.988312 
36.649513 9.802200 33.973312 
31.594421 12.246111 31.564688 
35.354744 10.270647 31.078457 
38.826786 10.461926 32.006668 
42.838646 8.507206 38.211262 
45.459332 9.569759 36.873867 
42.967709 10.113394 32.181263 
38.561600 9.239244 30.603556 
42.365253 9.013015 30.308685 
33.393970 9.638284 27.573305 
33.926712 10.818903 25.241936 
36.761616 9.353456 27.154488 
37.785877 10.182993 22.110662 
37.662704 10.608842 25.289660 
41.425873 9.587432 27.246599 
41.480419 8.807479 29.477316 
46.308731 10.132400 30.235714 
45.394913 10.522885 27.771599 
38.430809 10.711814 24.358290 
43.548939 10.431676 21.327612 
44.447979 11.622381 25.357468 
45.979130 11.191009 33.237083 
48.894062 12.497014 37.582405 
49.845570 12.108819 39.503948 
48.937252 10.801369 40.217201 
51.047417 15.221173 38.119942 
52.112843 12.118792 39.950432 
49.109917 11.306719 32.277924 
49.350002 13.589535 35.273991 
51.862751 16.307114 37.176018 
55.346375 16.089260 39.805573 
52.605145 16.462376 38.583763 
54.216415 17.530664 37.427170 
53.832623 15.723978 39.013733 
53.016556 15.041042 35.443356 
52.537663 13.929369 33.314514 
50.647079 13.037534 28.750208 
49.344887 13.093922 26.154724 
54.391312 15.634235 29.070183 
52.858532 14.589894 27.196655 
-17.536762 28.361101 112.416222 
-13.761400 28.658901 113.935417 
-18.764168 29.108948 112.533287 
-16.114557 29.460478 113.400482 
-10.886465 28.157492 114.139130 
-10.903060 26.716003 113.107666 
-10.008739 28.479443 114.475540 
-9.480698 28.363890 114.446243 
-8.633617 28.165119 114.400826 
-7.427299 28.400255 114.721016 
-7.189111 28.345751 114.714394 
-6.777502 28.568085 114.897781 
-6.268884 28.104071 114.653542 
-5.703231 28.516197 114.959953 
-2.760788 28.640234 115.221107 
-1.781147 29.631311 115.897018 
-0.474271 29.893311 116.454407 
1.468862 30.514856 116.561897 
1.639301 30.728136 116.647850 
2.228582 30.809883 116.573601 
2.827145 30.697079 116.406059 
-18.457476 24.100153 108.659576 
-15.633537 24.656096 110.159737 
-7.223453 25.350605 112.542747 
3.866178 23.188829 110.900421 
1.566928 20.729486 108.933006 
-2.047562 26.388687 113.559769 
9.771654 25.948448 112.760582 
7.201313 27.265900 114.010162 
3.964557 29.706861 115.780556 
1.168419 28.918182 115.464340 
6.195487 29.891365 115.998146 
12.462946 28.393103 114.205719 
9.295434 31.012806 116.441986 
6.473748 31.932302 117.154594 
8.006514 32.616879 117.428909 
9.062503 32.876820 117.399986 
11.266902 33.004036 117.257225 
14.272186 33.378498 117.037865 
10.650744 34.660061 117.802292 
12.220164 34.327618 117.663437 
17.196331 34.463902 116.746071 
14.845608 34.727757 117.382225 
14.302238 23.426611 110.040215 
21.653988 17.021412 102.029716 
19.952429 27.030920 111.362427 
15.621799 28.753126 113.793762 
18.416338 32.640076 115.575104 
21.810970 30.358601 112.880264 
18.784525 20.050327 105.909065 
26.983551 22.738680 104.826614 
25.522978 31.579214 112.431145 
23.631884 26.405609 109.362442 
31.172922 20.634407 100.460197 
32.390076 16.427710 94.351051 
33.912632 13.905796 88.483414 
31.742430 23.830505 103.138962 
36.002907 25.929102 101.882027 
34.511238 28.520676 105.177818 
41.775269 22.244316 92.758759 
40.023193 29.955524 101.968758 
35.530792 20.044672 96.143578 
42.822948 27.606552 97.156517 
38.095016 25.450167 99.618446 
45.968132 26.889788 93.484901 
18.232952 35.947666 117.169090 
21.764088 39.164085 117.655640 
21.125645 35.746651 116.344978 
21.355532 36.697010 116.674416 
22.599632 35.256466 115.720482 
22.136843 37.079273 116.779823 
22.529167 39.202076 117.770721 
27.430990 32.335133 112.142174 
30.330120 35.421658 112.623383 
28.611633 28.285833 108.711937 
32.808666 41.048817 114.622948 
23.061600 40.445873 117.962975 
24.897223 40.089645 117.434433 
27.124222 39.228088 116.485016 
27.797508 40.787262 116.836098 
27.286835 41.481754 117.064301 
28.694206 41.517654 116.523605 
31.567101 41.290550 115.200256 
36.911736 39.771690 111.699379 
32.567665 42.445751 115.122604 
33.274731 42.745228 114.980003 
34.531181 43.154816 114.555870 
36.837986 42.686932 113.461975 
35.236214 43.562286 114.344406 
36.282146 43.376423 113.901154 
36.523129 43.871006 113.889870 
37.612961 43.727806 113.437904 
35.942234 35.501896 109.506096 
39.350159 44.945370 113.143723 
39.622974 43.933975 112.697365 
34.958427 33.634354 108.795303 
38.580925 32.929398 105.554947 
43.911324 38.235035 105.513268 
45.017818 33.676704 100.829155 
42.198177 34.148949 103.671875 
43.602676 29.826769 98.643448 
47.226711 30.262394 95.316513 
53.155418 36.446896 94.467682 
39.969688 39.307220 109.424835 
42.296562 44.485447 111.275314 
48.655193 44.104492 105.343170 
48.867088 40.670712 102.506660 
49.446186 35.771606 97.839737 
55.077469 41.743603 97.206253 
39.959354 45.689964 112.937065 
42.396935 46.156506 111.920998 
44.305103 47.217525 110.926666 
44.915108 47.804382 110.574493 
47.662628 47.607220 108.775116 
46.154449 48.162029 109.837654 
46.203743 46.889278 109.534218 
48.580040 48.828159 108.384125 
46.772308 48.607655 109.489670 
51.049999 48.955490 106.703453 
50.574993 50.773075 107.425758 
51.500668 50.037090 106.782761 
55.125488 51.141079 104.649109 
51.103378 43.942078 103.080307 
55.537430 50.444981 103.992027 
53.046780 43.675159 101.107765 
58.373604 48.789642 99.897934 
54.379025 51.774921 105.191605 
56.949757 52.685326 103.946411 
59.527618 53.151897 102.094719 
59.341557 54.231102 102.553810 
42.690590 17.647213 85.690636 
46.397995 18.301331 82.306129 
39.453259 17.691072 88.928368 
41.392128 12.948199 79.941811 
46.997078 16.042055 77.677864 
50.564701 18.060181 75.280045 
47.162899 23.038811 87.892204 
49.953560 21.733822 82.308372 
53.364780 15.205107 66.268867 
56.533337 15.839255 62.491665 
57.361835 13.387195 59.403622 
57.425797 20.548655 66.488106 
52.904243 25.436272 82.786118 
54.379341 22.033474 74.616821 
57.523354 26.329588 74.735451 
59.533237 20.365023 62.382015 
50.769093 31.506872 92.672874 
53.895092 31.574028 88.636566 
51.668190 27.597740 87.435165 
56.062004 31.476851 85.366486 
56.243755 35.786144 90.072800 
57.156639 38.807484 91.764969 
58.235863 43.954277 95.588844 
61.156445 16.832952 56.449333 
62.653755 17.856268 54.328568 
58.653419 16.869665 43.268597 
61.319927 16.780445 47.417595 
55.535149 17.097452 33.838886 
57.700859 18.802370 39.137257 
59.082691 20.690222 35.903542 
55.526100 18.538315 38.008091 
62.713940 21.687386 41.488594 
59.685104 19.834854 40.834782 
64.248512 23.984558 38.112434 
59.824722 18.525578 27.374870 
57.965271 18.508001 32.421986 
62.327812 22.593002 34.299583 
67.393539 26.155617 39.188164 
65.175575 24.699837 36.290253 
70.795891 27.999752 36.738884 
61.299896 54.326431 100.749992 
61.842335 55.056553 100.288567 
62.434814 54.136826 99.577682 
62.768959 55.846642 99.546196 
63.669773 30.393494 66.588303 
60.940132 26.295176 67.235275 
58.898277 31.813435 80.689476 
60.842434 36.022148 82.314178 
59.996899 43.143063 92.511093 
60.322430 38.156025 86.325272 
63.291298 42.023994 85.335724 
61.745003 32.075321 73.889519 
63.567604 36.058792 75.728058 
63.622669 32.621674 69.992546 
66.003555 38.661827 73.561356 
65.128822 41.468956 80.483543 
66.425758 35.568901 67.284660 
70.350494 40.615669 65.288284 
63.239464 18.024820 51.794903 
64.274803 19.465324 49.402912 
60.931091 21.893827 61.491276 
66.238770 24.365772 54.097633 
64.207016 22.094471 55.917168 
63.555248 24.224783 59.094967 
65.415146 27.589756 59.162666 
69.409203 28.382683 51.160194 
66.918777 23.639477 50.846161 
65.127388 22.311331 44.414265 
66.554947 23.324591 47.022934 
69.630707 27.861961 48.201641 
68.864105 26.783400 43.132244 
69.882202 27.830914 39.920994 
68.417877 24.458679 31.130074 
72.790840 26.358921 30.067053 
73.969498 30.656191 38.193615 
66.626465 31.707674 61.537872 
69.667480 30.126333 53.245026 
70.394966 35.157303 57.702354 
69.170471 36.056763 61.444691 
72.585129 33.240967 50.528221 
72.705040 38.279644 56.998436 
77.856361 40.340530 49.218555 
76.021233 42.033112 55.107853 
79.989166 44.325268 50.161438 
72.834190 32.136909 47.772854 
72.507278 30.560886 42.550343 
75.361496 36.957394 49.427414 
75.985825 35.144264 44.518963 
78.089722 34.779591 38.560032 
78.901512 32.688110 32.820099 
80.617722 38.332512 39.487255 
81.157906 42.061905 44.658295 
83.692780 45.921463 43.992329 
61.244141 49.195564 96.749435 
62.368992 44.135681 89.615814 
64.600685 50.449795 93.186287 
66.043022 48.009193 87.641541 
64.300926 52.759892 95.960327 
63.538242 56.124466 98.972755 
65.215027 56.451672 97.674026 
64.835938 57.376450 98.032631 
65.640602 57.854614 97.378418 
67.556610 57.779984 95.418221 
69.910660 54.487804 87.923958 
69.776184 52.045876 85.058289 
71.416550 57.640377 88.254395 
68.840881 43.111225 73.068039 
67.799072 43.921192 77.300865 
66.713470 46.263607 83.768463 
69.589935 48.190907 79.644333 
71.611298 48.603889 74.521729 
71.979507 51.891922 79.219101 
71.004623 44.053268 68.927376 
72.029579 46.265099 69.417725 
73.603714 56.283367 81.800179 
76.125534 60.742748 80.945076 
73.905617 53.370575 75.852905 
76.569183 55.469131 70.529495 
75.367691 55.847000 75.294739 
77.959991 57.625690 69.253387 
68.377350 60.385765 94.935249 
69.463699 58.133621 92.589523 
69.198006 59.790752 94.137283 
69.812996 60.643028 93.469513 
70.166222 61.679157 93.131248 
71.007660 62.127617 92.378380 
71.129929 61.237358 92.303642 
71.455109 61.531040 91.949844 
72.917183 61.520706 89.541283 
72.399864 61.637814 90.578712 
72.547241 61.497715 90.182014 
72.824203 62.015652 90.176697 
74.798409 61.187271 84.933319 
74.357513 61.618145 86.565941 
74.700859 61.648106 85.774338 
75.311195 61.707047 84.317261 
75.310158 61.399616 83.933464 
75.739250 61.740929 83.350792 
75.469742 61.139355 83.241714 
75.793930 61.401695 82.799530 
76.055939 58.756466 78.015755 
77.110588 61.009167 77.950691 
76.458588 61.383274 80.811623 
76.629440 61.150784 79.867508 
77.210938 61.089104 77.747276 
77.847069 61.155403 75.446419 
78.061852 60.852123 73.977882 
77.309769 61.060802 77.328804 
78.026146 61.335304 75.123917 
78.842163 61.010250 71.623657 
79.227051 60.563728 69.563553 
78.966248 61.040962 71.185493 
79.269691 61.107136 70.190216 
79.496315 61.216820 69.560959 
78.682434 61.450100 72.761497 
79.142746 61.528481 71.268166 
73.120506 44.823288 64.566650 
76.705330 49.867130 62.539330 
75.694801 50.619682 65.866150 
74.720314 47.037567 63.670925 
74.383980 50.289940 69.012169 
74.465820 43.229149 59.534637 
79.137306 45.488674 53.024349 
79.061989 47.753868 55.497242 
80.274582 50.711899 55.756142 
77.877129 50.226692 60.279404 
78.529190 55.944206 65.022552 
79.590591 53.693398 59.782597 
81.954773 55.598518 56.158524 
81.071045 57.801193 60.022270 
83.284538 59.888256 56.554001 
83.795235 59.417423 55.044945 
83.942024 59.934563 55.121159 
84.084602 59.673294 54.598137 
84.132057 59.948601 54.699512 
84.158997 59.950745 54.638603 
84.376450 59.966801 54.156162 
83.063263 44.286446 43.490234 
82.201668 46.956799 48.594601 
83.406921 50.384537 49.425934 
85.684784 50.952110 44.972034 
89.239319 51.023071 36.187576 
87.757523 53.227116 42.297115 
85.949921 46.890266 39.747337 
84.295555 54.647858 50.816757 
85.815773 58.563774 50.118214 
84.461365 59.265667 53.473633 
84.598099 58.063015 52.404972 
85.640083 58.974777 50.781849 
85.061852 59.525837 52.444153 
85.183990 59.514286 52.170227 
85.973007 59.066551 50.180008 
86.799217 58.609131 48.198601 
85.037537 53.413460 48.381680 
86.920631 58.112865 47.624722 
87.606598 58.156689 46.213703 
87.726967 57.664124 45.665943 
89.389946 53.984859 38.991234 
91.003227 56.114746 36.877335 
90.278168 56.436985 38.905830 
88.380302 55.781651 43.027809 
88.326347 57.729401 44.418976 
89.166405 57.265850 42.227764 
89.170753 56.775921 41.861591 
89.371727 57.285030 41.742523 
89.089310 57.751419 42.747391 
89.457428 56.802170 41.187897 
89.882217 56.836857 40.220592 
89.813988 56.465141 40.104218 
90.279732 56.878613 39.247044 
90.540749 56.981201 38.629063 
79.711304 60.715702 67.856842 
80.261528 60.521496 65.548080 
80.554451 60.964176 65.117950 
80.376564 60.481380 64.999687 
81.509163 60.188934 61.437408 
82.709335 60.353657 58.342770 
82.343529 60.763382 59.629681 
83.222359 60.364548 57.127453 
4.210445 -22.038225 2.653165 
10.408086 -23.714756 3.514675 
6.053640 -19.311369 9.718426 
7.002877 -23.370611 3.584713 
8.340099 -20.082075 9.358958 
10.104674 -20.904776 7.450868 
4.098323 -23.929714 -2.037100 
2.454098 -19.213299 3.149943 
2.678257 -23.852461 -9.555865 
2.466295 -23.194769 -7.552531 
2.869459 -21.944902 -3.047444 
9.213096 -26.661875 -2.145250 
7.243755 -27.496349 -5.747942 
6.122190 -25.179911 -0.887724 
5.013265 -26.731186 -7.527433 
12.541211 -21.082531 5.757735 
10.656955 -25.716446 -0.099578 
12.444402 -25.141369 -0.234177 
12.546428 -28.034403 -5.228273 
14.765563 -26.755272 -4.711224 
14.795224 -24.252655 -1.775032 
6.437577 -27.267614 -10.474415 
4.697664 -25.692894 -11.145645 
10.485137 -28.582214 -8.270528 
6.378214 -24.590372 -13.751243 
10.454901 -26.600128 -13.109685 
10.147993 -27.743711 -11.166675 
3.587484 -23.525499 -11.467309 
5.414290 -20.999235 -14.444240 
1.263093 -19.768377 -9.383651 
3.180809 -18.191090 -12.736438 
4.113666 -17.219126 -13.901309 
5.599033 -18.692379 -14.918476 
5.537090 -18.378826 -14.908645 
8.622410 -21.084597 -16.147383 
13.926207 -25.597778 -13.053875 
10.579226 -24.039236 -15.127397 
8.679090 -18.954819 -16.410282 
12.782479 -22.154222 -15.606954 
11.679461 -17.826815 -16.449974 
14.457423 -19.957747 -15.462201 
14.115320 -17.331896 -15.836286 
14.567276 -27.831373 -7.802070 
17.027378 -25.200228 -5.522559 
13.999228 -27.828161 -9.726047 
16.023645 -24.673155 -11.988797 
15.134371 -22.526072 -14.122174 
17.114012 -25.407574 -8.048604 
19.367735 -20.278864 -4.378141 
16.704185 -21.662582 -12.515344 
17.799046 -21.951210 -10.906062 
2.131068 -15.289196 7.210711 
-0.059053 -13.365508 2.653048 
-0.813115 -12.408616 -4.368849 
-0.161964 -14.184650 0.693000 
-1.401627 -10.401217 -0.922188 
1.342122 -17.585135 -3.752606 
-0.579560 -14.807775 -6.998098 
0.053640 -9.935843 6.833142 
-1.393696 -6.240495 7.253623 
13.252162 -15.570911 10.301085 
14.513797 -21.302673 2.634648 
15.372460 -18.124777 5.824766 
17.513987 -18.876749 -0.912601 
17.933168 -15.126546 3.197650 
19.048527 -15.426905 0.440914 
20.458899 -10.999816 1.975453 
18.481024 -10.411321 7.897040 
16.681494 -9.481104 11.624436 
20.278503 -9.176336 5.874024 
23.751282 -5.220871 3.905120 
22.339153 -11.809791 -0.609267 
24.292974 -12.613233 -3.806693 
-0.937289 -13.023036 -10.855556 
1.223705 -16.699236 -11.355572 
0.542094 -13.514288 -12.191513 
0.626341 -10.608901 -13.531204 
2.695001 -13.552303 -13.565326 
2.206287 -12.408425 -13.663548 
1.526697 -10.235553 -13.890237 
1.331915 -8.912766 -14.157941 
6.963770 -9.491191 -15.326321 
6.180693 -8.276929 -15.031533 
7.827743 -9.774073 -15.614393 
6.640978 -8.490828 -15.160602 
9.145218 -8.802326 -16.268152 
10.614660 -11.739947 -16.342632 
13.478342 -13.946370 -16.506468 
14.936414 -16.873114 -15.200171 
11.665812 -8.655873 -18.832438 
11.943217 -9.973886 -17.135214 
16.266399 -11.999866 -15.656633 
13.696956 -11.164333 -17.001314 
16.602583 -10.249973 -17.218155 
2.001468 -6.364611 -14.213326 
2.229461 -5.398383 -14.145287 
2.683597 -3.958050 -14.148741 
3.494537 -4.071903 -13.702946 
4.854656 -5.060958 -14.348830 
4.083022 -3.605001 -14.339640 
7.006930 -7.272585 -15.553552 
5.332602 -6.539329 -14.515447 
4.061932 -3.504632 -15.604484 
6.438973 -5.057297 -17.968874 
6.218282 -7.301861 -15.001818 
6.100490 -3.914661 -20.929611 
8.534020 -6.069141 -22.694473 
8.646182 -6.976816 -18.927738 
15.118690 -7.405686 -22.008074 
17.054480 -8.715972 -19.760578 
19.716911 -20.168497 -7.204624 
21.797575 -16.295551 -7.727190 
16.280361 -17.008947 -12.654049 
18.582960 -19.892303 -10.364560 
18.446877 -14.432602 -10.552604 
19.660639 -17.956610 -9.421222 
21.313358 -16.680723 -2.782791 
19.835388 -11.763947 -9.952091 
17.908398 -13.769120 -11.346666 
20.880133 -14.932941 -9.056374 
23.781265 -13.559850 -7.796621 
15.681711 -15.530556 -14.641662 
18.007509 -12.515158 -13.690810 
19.667336 -11.147026 -13.523096 
20.547520 -11.151731 -9.766393 
20.478563 -9.884212 -10.328670 
21.419312 -9.265283 -12.379787 
21.680910 -7.718844 -10.741761 
22.411888 -12.166314 -9.173629 
23.670588 -8.368720 -9.809587 
22.359589 -7.201038 -10.256207 
23.980757 -13.944680 -5.662746 
24.323067 -11.847106 -8.793692 
25.490137 -9.330087 -9.675011 
28.093260 -9.487711 -7.901032 
28.173018 -7.871764 -3.161125 
30.386732 -4.767775 -4.664185 
27.905355 -9.866123 -5.271813 
29.141241 -8.007955 -8.697172 
30.328764 -6.533427 -6.806622 
19.744658 -8.990420 -18.441412 
22.979017 -7.271770 -19.559635 
24.036901 -6.572093 -12.497449 
22.682957 -6.824002 -10.452126 
22.318481 -8.221172 -15.624789 
24.823818 -6.489213 -10.144805 
25.357576 -5.673584 -11.077853 
24.631407 -5.022976 -14.537994 
24.889988 -5.661494 -17.521818 
27.894041 -7.485518 -10.196794 
29.392086 -5.001335 -10.704411 
9.552181 -6.665448 -31.910479 
11.430189 -7.021673 -31.991636 
10.168227 -7.251054 -34.365608 
7.834653 -5.497430 -36.313137 
11.445234 -7.225492 -35.731274 
17.026218 -8.441161 -34.158253 
21.205654 -8.558725 -30.734175 
16.773102 -8.041810 -36.484661 
6.266054 -4.521288 -26.289619 
3.682649 -2.221295 -25.218645 
7.946123 -5.694547 -27.148924 
8.913996 -6.485944 -29.353291 
6.235469 -4.688455 -30.586609 
9.917602 -6.554982 -26.222548 
12.464675 -7.367508 -23.220764 
18.243284 -7.940938 -23.197880 
12.565444 -6.972562 -28.373505 
15.778563 -6.320753 -25.862476 
14.992859 -6.152706 -29.989943 
17.550024 -6.522466 -29.867472 
19.263206 -7.668174 -27.477964 
4.966727 -3.882987 -35.487881 
9.432571 -3.298126 -40.617371 
14.091374 -5.818272 -38.471756 
12.484153 -7.442803 -33.967331 
22.998007 -8.968366 -30.769695 
20.128754 -7.051354 -37.002834 
22.405458 -9.005340 -32.668045 
21.132692 -7.984140 -21.431517 
21.888414 -8.312860 -27.607439 
25.520767 -7.379116 -25.739090 
25.829866 -5.842568 -20.160866 
27.878080 -6.057464 -24.039736 
29.548048 -5.678507 -26.059700 
31.644770 -3.964124 -22.911184 
27.995934 -6.977304 -28.094433 
27.750233 -7.667615 -32.527721 
26.117765 -6.198102 -36.661697 
32.735779 -5.710396 -31.699932 
16.114454 -6.161686 -50.448566 
14.909278 -5.229202 -52.230591 
20.939884 -6.852564 -49.439857 
21.951395 -5.965796 -51.061016 
16.010529 -4.351536 -40.444904 
11.479763 -0.947512 -42.204193 
15.800375 -2.433106 -42.677811 
16.661013 -2.683716 -41.889675 
10.844851 -2.636020 -44.931152 
19.753429 -6.076654 -38.479389 
20.693497 -3.332361 -40.901627 
17.438583 -4.349246 -44.675465 
23.091423 -5.108722 -43.298264 
22.705423 -3.446823 -41.022026 
13.477682 -4.766338 -47.625168 
11.987211 -4.433829 -52.333698 
11.539954 -2.051253 -54.807884 
14.975279 -3.393275 -53.860462 
18.752611 -3.112265 -53.962112 
22.522064 -6.162973 -46.004070 
26.158794 -6.011232 -45.523632 
18.956377 -6.239358 -51.668560 
27.414852 -6.087522 -48.933331 
25.430962 -5.108143 -38.285252 
25.910545 -2.818661 -40.209148 
25.215387 -3.291962 -39.665741 
27.909649 -1.490706 -38.716572 
29.319780 -4.507798 -36.967823 
30.866947 -1.154637 -38.176052 
32.364338 -3.108012 -42.701992 
30.678825 -3.096425 -41.179188 
32.689407 -5.394756 -33.517136 
28.940548 -4.897211 -43.501965 
25.206251 -6.150254 -50.287003 
32.423801 -4.101752 -47.414871 
35.692623 -1.702499 -45.110149 
31.772491 -3.506634 -49.739414 
38.357574 0.032524 -45.493477 
22.222626 -4.393000 8.364126 
25.180771 0.114590 9.895079 
25.545952 -5.610354 0.871025 
26.361698 -2.427769 2.390573 
28.880039 -1.329414 -0.363319 
28.511709 2.316612 7.934945 
28.918718 -0.990648 1.826890 
28.883495 1.355488 3.772263 
29.745827 1.441894 1.943341 
25.174929 3.818711 15.389635 
32.959850 5.177303 7.840391 
33.056549 7.449360 13.858172 
29.185965 5.935515 14.055701 
29.806244 2.333652 4.381550 
32.098083 3.512933 2.658375 
32.991589 4.620320 5.195595 
27.887524 -2.636374 0.207719 
29.865932 -2.021415 -2.699765 
30.913969 -3.903373 -6.708604 
29.912357 1.252091 -0.883540 
31.031160 2.581686 -1.908118 
30.561249 0.347917 -4.070845 
30.864262 1.198842 -7.344685 
27.446600 -1.623111 -14.884849 
30.738375 -4.180025 -8.802100 
27.399910 -4.303680 -12.249972 
29.422047 -1.057114 -11.842504 
30.402132 0.169406 -9.861258 
29.523956 0.787395 -12.364188 
30.161715 1.598285 -12.211625 
31.307299 0.126816 -14.903621 
32.162357 2.394101 -11.611349 
36.408657 2.313583 -14.522058 
34.553909 4.143369 -2.535613 
31.172531 2.668902 -7.383185 
34.344425 3.783688 -7.751067 
31.662374 3.131395 -6.701854 
31.205942 2.940713 -9.829664 
30.604174 9.783980 18.320669 
36.690407 4.809455 3.774799 
40.291435 4.996001 2.251943 
43.338539 4.167616 -3.550154 
46.891594 5.103555 -0.257439 
37.853477 4.181207 -1.740731 
45.185719 4.045030 -9.314113 
40.949314 4.438695 -10.701632 
37.728916 3.523410 -12.495006 
45.362526 4.355823 -14.503141 
49.787613 4.651788 -5.354605 
47.911293 4.143118 -8.313642 
34.228363 10.183984 18.770412 
37.393951 9.079827 14.202034 
34.004665 9.843766 16.998751 
42.003685 10.270658 16.537237 
48.074402 11.435264 22.095234 
46.562378 10.678089 16.063192 
49.114578 11.273467 17.407282 
38.817047 7.391973 10.130294 
46.536949 6.326180 3.873515 
43.975250 9.282667 12.575502 
51.864361 8.667998 6.467245 
54.211140 12.584978 18.049309 
50.034256 10.717710 14.333993 
53.671574 9.753878 8.872784 
52.530510 12.973053 22.691748 
56.797256 14.591237 21.195526 
62.113953 14.166586 16.329435 
62.909073 18.256914 22.898201 
59.194016 15.117455 19.863686 
65.717102 15.531025 16.083393 
63.326374 13.372548 12.501933 
68.418190 15.865248 12.981809 
53.114040 5.633102 -6.268569 
52.639427 6.913597 0.602060 
58.796177 11.209438 9.623605 
59.136147 10.141933 4.560265 
57.391396 8.093269 -1.702395 
61.372448 9.708377 -5.354410 
62.367149 12.005472 6.779126 
71.912971 17.444427 5.128603 
62.714542 11.378325 1.411390 
64.833351 12.302479 -2.557789 
66.809921 14.128424 5.562328 
70.318985 16.118866 -0.313002 
28.509130 -2.624337 -16.858385 
29.053032 -4.089725 -20.529882 
37.257099 -0.494822 -20.657047 
34.805538 -0.411850 -18.526615 
33.635918 -4.527102 -27.740911 
36.983936 -3.304230 -30.489658 
37.697498 -2.784244 -32.654884 
30.295919 -0.805926 -39.019276 
32.804707 0.184725 -38.048622 
34.976688 1.409768 -38.447865 
38.611713 -1.683204 -34.058155 
38.009747 0.187995 -36.135628 
42.841282 2.955123 -34.797649 
36.304768 2.103351 -37.695217 
39.789009 3.465143 -40.014507 
41.111984 5.730133 -37.032787 
35.498619 -0.038281 -40.526192 
41.082207 2.475110 -43.286510 
43.570305 4.296672 -46.498405 
41.525326 6.407160 -37.906128 
44.552269 8.851129 -36.057903 
43.734501 8.380323 -37.074154 
44.456203 5.802454 -40.453735 
37.774097 -1.876529 -24.472984 
42.276989 0.293144 -24.256031 
42.926991 0.038301 -27.248302 
46.140133 1.586751 -26.188171 
45.673843 1.900341 -30.277521 
47.905354 2.491224 -29.220383 
41.369366 3.109981 -16.418982 
44.206383 2.107640 -21.098509 
49.993332 4.615295 -15.076863 
54.169975 5.577498 -11.760747 
57.016998 6.841027 -14.977446 
53.777576 5.513538 -19.883400 
51.014915 3.275565 -26.822357 
48.367588 4.105481 -18.890682 
48.882675 2.919639 -22.904354 
54.567986 5.399319 -23.572117 
42.884720 0.378963 -30.915173 
49.860550 3.928903 -32.042961 
53.788322 4.672381 -30.577467 
45.219261 4.962824 -34.230129 
47.781769 5.475119 -33.779839 
53.207321 5.449542 -33.511013 
48.380997 8.918425 -37.242962 
46.797512 8.920684 -35.773838 
53.735435 4.481277 -28.040300 
50.943077 5.485342 -34.036797 
58.677605 7.709253 -28.774569 
56.914482 7.714151 -35.451385 
45.728760 7.943655 -37.903469 
47.680721 8.573938 -38.465988 
47.436840 7.502283 -43.533772 
50.709785 8.050169 -36.916058 
50.313244 9.118467 -39.918343 
50.522320 9.124454 -42.605869 
52.558460 9.930187 -42.521912 
54.806831 8.604653 -38.504204 
56.801048 7.133124 -6.579456 
60.149361 8.686458 -12.433518 
70.782585 16.171129 -10.990190 
59.345592 8.191088 -19.357872 
62.103920 10.098814 -23.911221 
64.042145 11.198263 -15.519739 
65.815125 12.603463 -20.088978 
65.435226 12.193293 -9.041148 
72.000725 17.209764 -4.615663 
74.517174 19.116962 -12.137719 
70.615875 16.272211 -16.071539 
69.372299 15.965336 -22.788870 
72.255066 17.960512 -20.278393 
59.417500 8.820604 -33.915924 
58.947609 10.660907 -40.377979 
64.071411 12.560604 -38.218983 
67.035828 14.002775 -28.228851 
65.019730 12.776535 -33.982674 
71.473618 18.287483 -30.056808 
68.558609 15.542466 -29.919889 
75.823212 20.594654 -21.405685 
73.220940 19.428982 -26.533587 
70.317230 17.491344 -35.416985 
68.876076 16.500334 -39.488575 
75.179710 22.344810 -40.687241 
14.864070 1.336693 -59.949585 
15.037506 -1.747759 -56.211372 
13.791224 3.856666 -63.715210 
19.999025 -0.143163 -58.567036 
19.110838 1.802676 -62.337788 
24.516922 0.820256 -61.334888 
22.849030 -3.299584 -53.009159 
26.423836 -3.745901 -52.246590 
25.100924 -0.438717 -57.601357 
19.830658 0.631277 -70.930649 
17.307621 2.807844 -64.724747 
22.975063 0.128983 -67.988251 
19.629358 1.264188 -67.575905 
31.566381 0.922244 -60.314865 
27.562737 -0.002330 -65.281586 
32.953251 0.825231 -63.603062 
29.756889 -3.302229 -51.641068 
30.040279 0.063769 -57.085091 
36.642696 0.872370 -66.559799 
19.487518 0.620726 -75.238892 
22.418386 -0.564414 -74.125237 
17.436302 2.300493 -79.974411 
20.446226 0.429428 -78.730316 
29.303011 -1.451041 -71.059845 
25.589956 -1.099513 -76.592125 
32.427258 -1.075209 -68.962654 
35.755615 -1.069875 -74.339287 
30.548233 -1.554335 -75.266426 
23.606812 0.122088 -80.701920 
23.373028 1.108498 -82.404556 
24.767641 2.061718 -83.874672 
21.842545 4.609376 -86.394508 
19.740458 8.231316 -89.161324 
26.591307 2.985995 -85.244736 
26.796747 0.439583 -81.265968 
33.896511 -0.753149 -77.824913 
28.621540 1.095936 -82.018234 
33.811237 2.613121 -83.942268 
30.984442 4.287488 -85.913536 
32.530792 0.938233 -81.751450 
36.897972 0.903315 -80.828995 
37.600269 0.294694 -78.739700 
40.128304 1.202950 -78.038422 
39.659214 0.255917 -75.276787 
36.753002 3.210092 -83.939995 
28.268761 4.404392 -86.259056 
35.682747 -0.204934 -51.829189 
33.584572 0.358645 -55.441170 
35.881702 1.925456 -58.426865 
37.008408 -0.335339 -48.828217 
38.127632 2.120804 -54.948929 
41.373577 3.088244 -50.943508 
43.590359 4.313152 -49.064133 
37.140976 2.494793 -62.327915 
41.727242 4.428168 -61.571697 
39.941307 3.029835 -64.461632 
40.971512 4.178416 -57.997585 
50.153572 8.558103 -61.480919 
45.535107 6.293143 -54.216248 
45.956127 6.876835 -58.178452 
36.899555 -0.607742 -71.667305 
42.462173 2.462804 -68.212036 
44.528263 2.902046 -70.183273 
47.028095 5.858949 -64.784393 
49.614880 5.529829 -71.990311 
41.262417 2.926919 -80.777100 
45.953140 4.620399 -79.570709 
43.291012 4.130002 -81.103432 
44.095253 2.388379 -74.970901 
48.929321 5.057391 -74.679626 
47.199886 4.538210 -77.651215 
51.083801 6.785144 -77.131432 
53.830807 8.382776 -70.545082 
51.785484 7.999506 -79.179886 
54.259583 9.608804 -77.668427 
56.073044 11.480271 -76.755882 
49.472958 8.470658 -48.301815 
51.859379 9.938416 -50.277012 
52.981522 10.650657 -54.239742 
55.079163 11.356447 -53.150711 
57.872143 12.557784 -49.009327 
48.943024 8.599131 -56.681519 
54.310009 11.066490 -56.235203 
56.830715 12.001776 -57.341843 
57.404453 10.588617 -55.153355 
57.172794 11.845298 -62.276913 
57.457741 12.433949 -58.632191 
53.505207 8.914901 -67.113586 
56.684975 10.860877 -67.849075 
54.262272 8.888077 -74.544525 
57.348988 11.303500 -72.364441 
59.949093 14.172049 -71.752411 
58.165943 12.005751 -44.824402 
62.661087 14.168190 -46.106911 
65.362885 14.646864 -43.120296 
62.979118 15.506043 -52.781540 
59.456017 13.366106 -55.851208 
58.155815 12.829541 -53.072617 
67.467308 18.328051 -51.727829 
65.723824 18.412527 -57.119854 
62.780148 15.993889 -57.230598 
71.664047 19.319502 -41.390175 
65.460495 16.266001 -48.915928 
75.979645 23.773687 -44.418137 
71.517792 21.775108 -52.048828 
70.509827 19.692316 -47.443913 
74.347946 25.323425 -54.146179 
61.184875 15.013039 -61.240414 
62.474506 16.743443 -68.767662 
63.639854 17.009491 -61.829769 
60.563374 14.268664 -66.280975 
59.399799 15.171509 -75.132858 
60.353954 16.806919 -74.913231 
62.117863 17.316416 -72.261276 
63.791859 19.382429 -70.850433 
65.287476 24.298948 -72.792641 
60.516586 19.611622 -77.643883 
61.527069 18.453043 -74.723938 
64.644844 20.422226 -69.483307 
66.096886 20.584948 -65.194374 
68.275551 21.499140 -61.338730 
70.751915 24.313885 -61.823734 
73.091080 28.088270 -63.074459 
71.624039 27.476118 -64.582436 
63.907940 23.440536 -74.656151 
62.994728 23.159206 -75.784164 
63.935993 22.297911 -73.354507 
64.352905 23.678196 -73.933380 
63.344307 21.847309 -74.210648 
63.527702 23.513153 -75.312347 
66.039871 25.235506 -72.346832 
64.506241 24.193853 -74.021584 
64.697433 24.104868 -73.683586 
66.793633 23.180141 -68.393639 
67.566353 25.678684 -69.999626 
67.900978 26.099092 -69.904877 
69.147942 26.639021 -68.059265 
68.353439 25.884203 -69.017075 
70.105957 26.967104 -66.863914 
68.851059 26.617668 -68.671715 
69.299980 26.821321 -68.004272 
69.216782 24.764261 -65.575256 
69.583313 27.047056 -67.786736 
70.449814 27.224947 -66.571777 
70.375130 26.945921 -66.441109 
70.960556 27.571993 -66.011795 
71.458908 23.262766 -57.276333 
24.432051 7.450104 -88.987839 
23.914452 9.864700 -90.581116 
26.604195 10.108103 -90.407936 
27.418734 6.809307 -88.118828 
29.888062 7.691897 -88.803307 
27.656359 8.512179 -89.498322 
25.925760 11.748289 -91.635277 
24.272287 13.697733 -92.684380 
26.270313 13.368165 -92.277321 
33.265179 6.673465 -87.330002 
30.998089 6.685110 -88.044724 
33.031830 9.218384 -88.971680 
38.085823 7.103331 -87.011108 
37.613571 5.660386 -86.158554 
31.283102 9.588932 -89.576408 
34.642033 11.946336 -90.552849 
35.839798 10.418077 -89.157455 
36.322063 12.978110 -90.386406 
34.773293 13.299230 -91.000465 
38.481842 8.507554 -87.614777 
37.839310 9.931697 -88.530037 
37.437374 12.125479 -89.440704 
38.829540 10.088952 -88.294746 
38.820366 13.267503 -89.556297 
37.079807 14.077155 -90.576851 
42.606995 7.659595 -85.266808 
39.411701 4.130890 -83.662628 
45.624371 6.296173 -82.449112 
44.579777 9.420605 -86.325348 
46.092537 9.591560 -85.700500 
40.103630 8.906217 -87.356056 
40.626972 9.330684 -87.382545 
41.156425 9.388943 -87.235245 
41.470203 10.249110 -87.622177 
42.074539 10.020427 -87.330093 
44.519196 11.647066 -87.361320 
46.369400 11.126629 -86.386269 
47.486172 10.916831 -85.755486 
46.818203 10.986434 -86.100937 
47.985931 13.214383 -86.282471 
48.474979 14.997174 -86.501816 
48.328152 10.515941 -84.957352 
49.539066 7.820081 -81.260048 
51.218758 11.397055 -83.278481 
48.489693 12.050432 -85.633232 
49.986473 14.967216 -85.582237 
56.734806 14.225633 -78.932381 
54.014580 13.420810 -81.903732 
49.832317 16.236097 -86.120300 
51.896179 15.292001 -84.935982 
53.333942 15.749070 -83.688103 
51.798031 16.192659 -85.154785 
54.820183 15.683171 -82.164505 
58.300690 18.193045 -79.961967 
57.849392 19.637201 -81.049179 
53.881836 17.125580 -83.597206 
54.454895 17.491945 -83.284676 
55.757572 17.099154 -81.988052 
56.634964 20.138563 -82.614861 
58.159496 15.572541 -77.812553 
59.258282 18.219542 -78.754112 
58.256207 19.487202 -80.513237 
59.074699 19.224451 -79.545753 
59.772926 20.017693 -79.012901 
59.532047 19.549011 -79.125542 
61.335453 20.086369 -76.361092 
61.046215 21.181080 -77.938286 
61.272034 21.690550 -77.965935 
61.036835 21.797428 -78.362503 
62.165634 22.552748 -76.722649 
61.543453 22.143232 -77.785965 
62.499443 20.375868 27.740845 
71.893661 22.504692 23.624426 
66.927567 21.510445 25.902752 
74.150093 19.779665 11.639974 
73.804016 18.816799 1.573261 
75.953346 20.271044 -8.058386 
80.149277 24.188387 -17.978851 
77.563347 21.594608 -16.248501 
78.606216 23.346354 -25.839981 
76.611252 22.438208 -31.296017 
75.415428 21.835936 -35.605366 
80.236511 25.525471 -32.648273 
82.711800 27.646687 -29.369478 
82.880135 28.574768 -33.119244 
79.124496 25.748875 -39.947620 
82.492073 30.454222 -41.943157 
75.297783 24.794409 -49.864075 
77.649498 27.942957 -51.346039 
79.631088 28.667606 -47.451145 
84.502853 32.434151 -38.229588 
86.958176 36.300064 -37.164204 
86.188988 35.872837 -39.896149 
79.479485 31.224821 -52.904247 
80.852753 33.153118 -52.223213 
81.195930 33.167198 -51.141140 
81.032837 33.716442 -52.663864 
81.155457 33.619122 -52.149555 
82.901161 34.613640 -48.755035 
82.317253 31.129684 -44.503231 
83.799561 34.631905 -46.019283 
82.186394 34.316708 -50.161354 
82.212059 34.773533 -50.668774 
82.710526 35.195961 -49.971722 
83.683441 35.726208 -48.063667 
83.934799 36.177986 -47.958149 
84.685249 36.559406 -46.199711 
85.600807 37.650204 -44.666100 
86.000046 37.820736 -43.553288 
85.899055 37.320290 -43.195892 
86.896233 38.950363 -42.350586 
86.253311 38.288239 -43.452908 
85.940872 38.050774 -44.088634 
85.757370 38.027477 -44.675121 
83.555275 35.830696 -48.632385 
71.916283 28.027559 -64.705780 
72.654778 28.403948 -64.074059 
74.242256 29.454784 -62.393143 
73.836800 29.193041 -62.906940 
71.230804 27.754635 -65.656715 
71.724365 28.113138 -65.138794 
76.280846 30.226971 -58.830997 
76.106728 27.625021 -54.946712 
74.411331 28.403168 -60.413307 
73.430458 27.630728 -61.781960 
74.650101 27.764305 -58.846931 
75.881844 30.170950 -59.621845 
75.027618 29.734591 -60.942825 
74.664291 29.634848 -61.587067 
75.281357 29.907621 -60.656239 
75.531311 30.079493 -60.354733 
77.537918 31.105150 -57.251472 
77.677040 31.320238 -57.196491 
77.602196 31.375593 -57.480236 
76.863899 30.874790 -58.513031 
76.919388 30.841806 -58.362190 
77.290466 30.981876 -57.761574 
77.408737 31.182188 -57.717159 
77.444801 31.319817 -57.816849 
78.414742 31.640894 -55.851711 
79.399719 32.149212 -54.273636 
77.801895 31.317541 -56.933014 
78.106255 31.681427 -56.604580 
75.801544 30.227137 -59.908173 
75.949280 30.418427 -59.839909 
76.214462 30.617479 -59.504395 
80.020691 33.055843 -54.047379 
88.059135 40.513168 -39.871105 
89.161964 41.737221 -37.175476 
87.460312 39.898575 -41.455547 
87.563904 39.781971 -40.852596 
88.322594 41.052116 -39.484657 
87.760048 40.275669 -40.764030 
88.463402 41.177948 -38.969799 
88.867516 41.836880 -38.237209 
69.731438 19.078672 19.671267 
72.796806 19.297365 14.553624 
73.066521 21.022242 19.211451 
74.941048 28.449348 31.366199 
77.180756 26.669548 23.883961 
78.843094 26.910568 20.198154 
77.368378 23.810122 16.121952 
81.984070 29.797365 17.360832 
78.853287 24.445501 12.563971 
77.600563 22.182987 2.249807 
77.400963 21.701202 -3.460460 
78.749863 23.601820 6.007250 
80.743530 25.878334 5.745242 
82.819923 28.558533 5.409473 
83.599327 29.034760 -1.103948 
79.651566 30.321407 26.453548 
81.995453 35.448067 31.425598 
82.126801 32.523499 24.475609 
84.494156 34.370506 20.277679 
84.382591 36.180462 25.874847 
86.532310 38.205853 21.821304 
87.863594 39.567204 18.651323 
84.681725 40.670727 33.602501 
87.535217 41.597603 26.979828 
90.280495 46.913734 25.813107 
90.805550 45.350098 17.168257 
85.037086 32.116501 6.667057 
83.531509 31.130936 14.434064 
85.115417 31.707376 1.715412 
86.735336 34.829506 4.837807 
87.566422 36.924923 9.690605 
88.735733 41.552776 20.728493 
89.535225 41.313744 12.263907 
90.081215 41.898697 7.355237 
90.036644 41.075760 2.374539 
92.906746 48.460037 1.600465 
80.826164 25.116119 -3.547647 
80.291695 24.137764 -11.607022 
82.808868 27.380592 -6.573697 
84.386223 29.542091 -7.560737 
85.846649 32.181847 -5.930673 
86.443649 32.562340 -12.024344 
83.116867 27.535425 -16.785610 
86.224754 31.983942 -17.209185 
88.159790 35.846207 -14.260183 
81.188568 25.565750 -24.776182 
85.415634 30.828423 -23.485350 
87.402420 33.855206 -23.665197 
88.602638 37.501850 -31.504585 
86.416016 33.250359 -30.891378 
87.242065 34.905579 -5.764821 
88.958679 38.674015 -4.328508 
88.180336 36.787582 -7.109463 
89.335449 39.765072 0.263074 
91.063629 43.662865 -1.095272 
89.353439 38.862221 -10.062836 
91.162079 43.266415 -8.619303 
90.734818 42.496380 -5.984275 
92.364410 46.660568 -1.143339 
92.128189 44.869255 -12.381487 
92.394958 45.099380 -16.860590 
92.339737 46.387745 -4.844057 
92.980240 47.247971 -10.981966 
88.477333 35.878036 -16.830843 
89.202507 37.343002 -24.096529 
90.536552 40.539604 -18.126657 
89.821281 39.929718 -30.287149 
89.905914 42.672466 -35.084713 
91.033707 42.543983 -28.185232 
90.806122 43.881523 -32.714680 
90.571342 40.695137 -14.362919 
91.767662 43.385750 -20.660885 
91.215965 42.207142 -24.940601 
92.462914 45.378731 -21.680325 
94.217621 51.429508 -21.020069 
93.800980 49.924393 -21.063683 
94.019218 50.885674 -22.203327 
92.903572 47.943287 -26.319139 
92.145241 46.171001 -28.915562 
90.535172 42.169525 -30.962032 
91.310059 45.303570 -32.152554 
91.793449 46.074554 -30.676641 
91.558098 45.674854 -31.308891 
92.015709 46.473419 -30.016888 
92.011803 46.479305 -30.053831 
92.073387 46.693100 -30.021582 
92.708855 47.421421 -27.347750 
92.422874 47.294746 -28.809549 
92.832268 48.110741 -27.565643 
93.228661 48.878361 -25.461777 
93.017128 48.523762 -26.948292 
93.865585 50.190536 -22.960564 
86.148987 43.219154 34.129547 
88.372765 47.290516 33.708336 
89.045563 46.213951 29.755016 
91.077988 51.276924 30.562313 
90.318161 45.745758 22.668640 
93.583496 51.594379 16.443232 
92.135559 52.028358 27.219208 
91.380516 55.790703 35.671524 
91.438889 56.518585 35.989536 
91.665337 56.565544 35.263756 
91.975220 56.061951 33.616192 
92.128838 56.201603 33.198128 
90.001907 50.497406 33.243111 
92.105377 54.559090 31.448233 
92.161362 55.731087 32.617592 
92.659233 55.628109 30.417778 
92.915215 55.971054 29.608082 
93.279961 56.042976 27.995981 
93.246048 55.151184 27.275377 
93.389107 56.137077 27.587383 
93.516129 55.660255 26.351227 
93.619110 56.222019 26.575031 
93.675880 55.584385 25.535135 
93.845428 56.307846 25.561823 
93.951408 56.352646 25.053556 
94.148811 55.938217 23.379990 
94.171959 55.554844 22.622358 
94.049591 56.399448 24.543488 
94.025337 56.383003 24.680834 
94.236160 56.034786 22.946533 
94.364998 56.170643 22.297770 
94.469528 55.807869 20.959564 
91.643204 48.897049 23.148109 
93.965302 53.999271 21.334721 
92.164558 47.933273 14.655895 
93.469879 50.928291 11.212273 
91.788849 46.586853 12.302016 
93.479446 50.207676 5.146159 
94.446281 53.484505 11.189058 
94.052139 52.187233 6.772035 
